ply
format ascii 1.0
element vertex 1991
property float x
property float y
property float z
property uchar red
property uchar green
property uchar blue
end_header
269 308 3.179 214 230 255
270 308 3.179 213 229 254
271 308 3.179 214 230 255
273 308 3.214 216 230 255
274 308 3.214 219 231 255
275 308 3.214 222 230 249
276 308 3.214 230 236 252
277 308 3.214 192 195 204
278 308 3.221 128 126 129
279 308 3.221 138 133 129
280 308 3.221 147 139 128
281 308 3.221 152 140 124
287 308 3.214 154 136 112
445 308 1.480 13 17 20
446 308 1.467 14 18 21
447 308 1.467 10 14 17
448 308 1.467 10 11 15
454 308 1.803 9 10 14
461 308 3.099 22 27 31
464 308 2.933 45 52 58
466 308 2.882 50 57 65
467 308 2.854 50 57 63
468 308 2.838 52 57 63
469 308 2.789 50 55 61
470 308 2.763 50 55 61
514 308 1.676 4 3 11
571 308 2.975 45 52 60
598 308 1.992 40 43 50
599 308 1.987 36 39 46
600 308 1.979 31 34 39
611 308 2.303 15 14 22
612 308 2.289 12 11 19
613 308 2.274 10 9 17
614 308 2.247 9 8 14
157 309 3.271 64 76 90
171 309 1.717 60 73 92
172 309 1.711 64 75 93
173 309 1.713 64 75 93
174 309 1.713 65 76 94
175 309 1.715 74 85 103
176 309 1.715 138 150 172
177 309 1.715 219 231 253
178 309 1.713 217 231 255
179 309 1.711 209 223 249
180 309 1.709 209 223 250
181 309 1.709 211 225 252
182 309 1.707 210 225 254
183 309 1.703 208 223 252
184 309 1.703 208 223 252
190 309 2.085 208 223 254
191 309 2.100 209 224 255
192 309 2.100 207 224 252
193 309 2.100 208 225 253
194 309 2.091 205 222 248
195 309 2.094 206 223 249
196 309 2.094 207 223 248
197 309 2.094 203 219 242
198 309 2.094 211 226 247
199 309 2.094 183 198 217
200 309 2.094 92 105 122
201 309 2.094 37 50 66
202 309 2.094 48 60 76
203 309 2.091 54 66 80
204 309 2.097 53 62 77
205 309 2.100 52 62 74
206 309 2.085 56 66 78
218 309 2.112 53 61 80
219 309 2.115 57 65 84
220 309 2.115 54 65 87
221 309 2.115 63 74 96
222 309 2.115 128 140 162
223 309 2.115 211 223 247
224 309 2.115 218 232 255
225 309 2.115 208 222 248
226 309 2.115 207 223 249
227 309 2.115 207 223 249
228 309 2.115 206 221 250
229 309 2.115 207 222 251
230 309 2.115 207 222 251
231 309 2.115 208 223 252
232 309 2.118 208 224 250
233 309 2.168 208 224 250
255 309 4.879 211 226 255
256 309 4.723 210 226 252
259 309 4.073 212 228 254
262 309 3.597 212 228 254
263 309 3.520 213 229 255
265 309 3.200 214 230 255
266 309 3.139 214 230 255
269 309 3.179 215 231 255
270 309 3.179 213 229 254
271 309 3.186 215 231 255
272 309 3.221 215 231 255
273 309 3.214 216 230 255
274 309 3.214 219 231 255
275 309 3.214 222 230 249
276 309 3.221 228 234 248
277 309 3.221 190 193 202
278 309 3.221 126 124 127
279 309 3.221 138 133 129
280 309 3.221 146 138 127
281 309 3.221 152 140 124
445 309 1.480 9 13 16
446 309 1.467 9 13 16
447 309 1.467 7 11 14
448 309 1.467 8 9 13
453 309 1.821 8 9 14
454 309 1.799 7 8 12
455 309 1.788 6 7 11
461 309 3.093 23 28 31
464 309 2.951 43 50 56
466 309 2.905 49 56 62
467 309 2.865 49 57 60
468 309 2.843 50 55 61
469 309 2.800 47 52 56
470 309 2.769 47 52 56
514 309 1.678 4 1 10
571 309 2.987 47 54 62
600 309 1.979 30 33 38
612 309 2.285 12 11 19
613 309 2.267 9 8 16
614 309 2.230 8 7 13
615 309 2.220 7 6 12
616 309 2.190 6 5 11
157 310 3.271 62 74 86
171 310 1.717 59 70 90
172 310 1.713 62 75 92
173 310 1.713 64 77 94
174 310 1.713 65 78 95
175 310 1.715 77 90 107
176 310 1.715 145 157 179
177 310 1.715 220 232 254
178 310 1.713 215 229 255
179 310 1.713 209 223 249
180 310 1.711 209 225 251
181 310 1.711 209 224 253
182 310 1.709 209 224 253
183 310 1.703 210 225 254
184 310 1.703 209 224 253
185 310 1.717 209 224 253
190 310 2.082 209 223 252
191 310 2.100 207 222 251
192 310 2.100 207 224 252
193 310 2.100 209 226 254
194 310 2.091 207 224 250
195 310 2.094 206 223 249
196 310 2.094 206 222 247
197 310 2.094 204 220 243
198 310 2.094 212 227 248
199 310 2.094 182 197 216
200 310 2.094 91 104 121
201 310 2.094 41 54 70
202 310 2.094 52 64 80
203 310 2.094 53 65 79
204 310 2.097 51 61 73
205 310 2.103 51 61 71
206 310 2.088 57 65 76
218 310 2.112 51 59 78
219 310 2.115 56 64 83
220 310 2.115 52 63 85
221 310 2.115 61 72 94
222 310 2.115 128 140 164
223 310 2.115 210 222 246
224 310 2.115 219 233 255
225 310 2.118 210 224 250
226 310 2.115 208 224 250
227 310 2.115 208 224 250
228 310 2.115 206 221 250
229 310 2.115 207 222 251
230 310 2.115 207 222 251
231 310 2.115 207 222 251
232 310 2.118 208 224 250
233 310 2.161 208 224 250
251 310 6.264 211 225 254
252 310 6.034 209 225 251
255 310 4.879 211 227 253
256 310 4.723 209 225 251
259 310 4.073 212 228 254
262 310 3.597 212 228 254
263 310 3.503 212 228 254
265 310 3.207 214 230 255
266 310 3.146 213 229 254
269 310 3.186 216 232 255
270 310 3.186 214 230 255
271 310 3.186 215 231 255
272 310 3.221 216 232 255
273 310 3.221 216 231 254
274 310 3.214 218 230 252
275 310 3.221 219 230 248
276 310 3.221 226 232 246
277 310 3.221 187 190 197
278 310 3.221 124 122 123
279 310 3.221 136 131 125
280 310 3.221 146 136 126
281 310 3.221 149 137 121
283 310 3.256 155 139 114
325 310 2.553 136 136 138
444 310 1.499 5 9 12
445 310 1.480 4 8 11
446 310 1.467 3 7 10
447 310 1.467 4 8 11
448 310 1.467 7 8 12
454 310 1.799 4 5 9
455 310 1.790 5 6 10
461 310 3.086 23 27 30
464 310 2.981 43 51 54
466 310 2.916 49 57 60
467 310 2.871 49 57 59
468 310 2.843 49 54 58
469 310 2.805 46 51 54
470 310 2.774 45 50 53
514 310 1.678 4 1 8
560 310 1.483 52 60 73
571 310 2.999 48 55 65
573 310 2.999 48 57 66
612 310 2.285 12 11 17
613 310 2.261 10 9 15
615 310 2.213 6 5 11
616 310 2.177 6 5 10
617 310 2.155 4 3 8
625 310 3.715 1 0 0
626 310 3.650 1 0 0
628 310 3.597 1 0 0
91 311 3.830 216 232 255
171 311 1.717 57 68 88
172 311 1.713 60 73 92
173 311 1.715 62 75 92
174 311 1.715 65 78 95
175 311 1.715 79 92 109
176 311 1.715 151 163 185
177 311 1.715 221 233 255
178 311 1.715 213 227 253
179 311 1.713 209 223 249
180 311 1.711 210 225 254
181 311 1.711 208 223 252
182 311 1.707 208 223 252
183 311 1.703 210 225 254
184 311 1.703 210 225 254
185 311 1.717 209 224 253
190 311 2.082 207 221 250
191 311 2.100 205 220 249
192 311 2.100 207 222 251
193 311 2.100 208 225 253
194 311 2.091 206 223 249
195 311 2.094 204 222 246
196 311 2.094 205 221 246
197 311 2.094 204 221 241
198 311 2.094 214 229 250
199 311 2.094 184 200 216
200 311 2.094 91 104 121
201 311 2.094 45 58 74
202 311 2.094 56 68 82
203 311 2.094 53 65 77
204 311 2.100 50 60 70
205 311 2.106 50 60 70
206 311 2.091 55 63 74
207 311 2.088 54 62 73
218 311 2.112 52 60 79
219 311 2.115 57 68 86
220 311 2.115 54 65 87
221 311 2.115 60 72 94
222 311 2.115 127 139 163
223 311 2.115 208 220 244
224 311 2.118 217 231 255
225 311 2.118 208 222 248
226 311 2.118 206 222 248
227 311 2.118 208 224 250
228 311 2.118 207 222 251
229 311 2.118 208 223 252
230 311 2.118 208 223 252
231 311 2.118 209 224 253
232 311 2.118 208 224 250
233 311 2.161 207 223 249
251 311 6.238 210 224 253
252 311 6.059 209 225 251
254 311 4.978 210 226 252
255 311 4.879 210 226 252
256 311 4.723 209 225 251
259 311 4.062 212 228 254
260 311 3.901 212 228 254
261 311 3.724 212 228 254
262 311 3.597 212 228 254
265 311 3.207 214 230 255
266 311 3.146 213 229 254
268 311 3.146 216 232 255
269 311 3.186 216 232 255
270 311 3.186 215 231 255
271 311 3.186 215 231 255
272 311 3.221 216 232 255
273 311 3.221 216 231 254
274 311 3.214 218 230 252
275 311 3.221 218 230 246
276 311 3.221 226 232 246
277 311 3.221 187 190 197
278 311 3.221 124 122 123
279 311 3.221 137 132 126
280 311 3.221 147 137 127
281 311 3.221 147 136 118
325 311 2.558 139 139 141
444 311 1.498 5 9 12
445 311 1.480 2 6 9
446 311 1.467 1 5 8
447 311 1.467 7 8 12
448 311 1.467 9 8 13
454 311 1.799 3 4 8
465 311 2.951 47 57 59
466 311 2.928 48 56 58
467 311 2.876 48 56 58
468 311 2.843 49 54 57
469 311 2.805 45 50 53
470 311 2.769 45 50 53
560 311 1.483 51 57 71
611 311 2.317 9 10 15
612 311 2.289 9 8 14
613 311 2.261 10 9 15
615 311 2.207 10 9 15
616 311 2.174 7 6 11
617 311 2.146 4 3 8
626 311 3.715 1 0 0
627 311 3.650 2 0 1
91 312 3.860 217 232 255
171 312 1.717 58 69 89
172 312 1.713 59 72 91
173 312 1.715 63 76 95
174 312 1.715 71 84 101
175 312 1.715 81 94 111
176 312 1.715 155 167 189
177 312 1.715 221 233 255
178 312 1.715 216 230 255
179 312 1.713 212 226 252
180 312 1.711 210 225 254
181 312 1.711 209 224 253
182 312 1.707 208 223 252
183 312 1.703 210 225 254
184 312 1.703 210 225 254
185 312 1.717 210 225 254
190 312 2.082 209 223 252
191 312 2.100 208 223 252
192 312 2.100 207 222 251
193 312 2.100 208 225 253
194 312 2.091 208 225 251
195 312 2.091 206 224 248
196 312 2.094 207 223 248
197 312 2.094 205 222 242
198 312 2.094 216 231 252
199 312 2.094 178 194 210
200 312 2.094 87 100 117
201 312 2.094 38 51 67
202 312 2.094 48 60 74
203 312 2.094 49 61 73
204 312 2.100 52 62 72
205 312 2.106 53 61 72
206 312 2.091 51 60 69
218 312 2.112 49 60 78
219 312 2.115 53 66 83
220 312 2.115 56 68 90
221 312 2.118 67 79 101
222 312 2.118 135 147 171
223 312 2.118 212 227 250
224 312 2.118 216 230 255
225 312 2.121 207 221 247
226 312 2.118 206 222 248
227 312 2.118 206 222 248
228 312 2.118 204 219 248
229 312 2.118 204 219 248
230 312 2.118 205 220 249
232 312 2.115 207 223 249
233 312 2.165 207 223 249
251 312 6.238 211 225 252
252 312 6.034 210 226 252
254 312 4.978 211 227 253
255 312 4.879 211 227 253
256 312 4.723 212 228 254
258 312 4.188 211 227 253
259 312 4.050 211 227 253
260 312 3.891 211 227 253
261 312 3.715 213 229 255
262 312 3.588 214 230 255
265 312 3.214 214 230 255
266 312 3.146 213 229 254
269 312 3.186 215 231 255
270 312 3.186 215 231 254
271 312 3.186 214 230 253
272 312 3.221 216 232 255
273 312 3.214 218 233 255
274 312 3.214 218 230 252
275 312 3.214 220 229 246
276 312 3.221 231 237 251
277 312 3.221 187 190 197
278 312 3.221 124 122 123
279 312 3.221 137 132 126
280 312 3.221 144 136 123
281 312 3.221 149 138 120
444 312 1.498 7 8 12
445 312 1.480 6 7 11
446 312 1.467 5 6 10
447 312 1.467 4 5 9
448 312 1.467 8 7 12
465 312 2.963 43 53 54
466 312 2.928 45 53 55
467 312 2.882 43 48 51
468 312 2.843 42 46 47
469 312 2.805 44 48 49
470 312 2.769 45 49 50
560 312 1.483 47 53 65
611 312 2.328 8 9 13
612 312 2.292 9 10 14
613 312 2.261 10 11 15
614 312 2.220 10 9 14
615 312 2.200 7 6 11
616 312 2.174 6 5 10
617 312 2.152 6 5 10
625 312 3.820 1 0 0
631 312 4.007 11 12 7
91 313 3.880 217 232 255
171 313 1.717 55 66 88
172 313 1.713 57 70 89
173 313 1.715 62 75 94
174 313 1.715 66 79 96
175 313 1.715 80 93 110
176 313 1.715 156 169 188
177 313 1.715 220 232 254
178 313 1.715 214 229 252
179 313 1.713 210 224 250
180 313 1.711 209 225 251
181 313 1.711 209 224 253
182 313 1.707 208 223 252
183 313 1.703 209 224 253
184 313 1.703 209 224 253
185 313 1.717 209 224 253
190 313 2.082 209 223 252
191 313 2.100 208 223 252
192 313 2.100 208 223 252
193 313 2.100 208 225 253
194 313 2.088 207 224 250
195 313 2.091 205 223 247
196 313 2.094 206 222 247
197 313 2.094 202 219 239
198 313 2.094 213 228 249
199 313 2.094 175 191 207
200 313 2.094 83 96 113
201 313 2.094 38 52 65
202 313 2.097 49 61 75
203 313 2.097 47 59 71
204 313 2.100 50 60 70
205 313 2.106 51 59 70
206 313 2.091 50 59 68
218 313 2.112 47 60 76
219 313 2.115 51 64 81
220 313 2.115 54 66 88
221 313 2.118 65 77 99
222 313 2.118 132 147 170
223 313 2.118 209 224 247
224 313 2.118 217 231 255
225 313 2.121 207 221 247
226 313 2.118 205 221 247
227 313 2.118 206 222 248
228 313 2.118 205 220 249
229 313 2.118 206 221 250
230 313 2.118 206 221 250
232 313 2.115 208 224 250
233 313 2.165 207 223 249
234 313 2.118 207 223 249
251 313 6.212 211 225 252
254 313 4.978 211 227 253
255 313 4.863 211 227 253
256 313 4.723 213 229 255
258 313 4.165 213 229 255
259 313 4.039 213 229 255
260 313 3.870 214 230 255
261 313 3.696 214 230 255
262 313 3.588 215 231 255
264 313 3.307 215 231 255
265 313 3.214 214 230 255
269 313 3.186 215 231 255
270 313 3.186 216 232 255
271 313 3.186 217 233 255
272 313 3.221 217 233 255
273 313 3.214 218 233 255
274 313 3.214 219 231 253
275 313 3.214 221 230 247
276 313 3.221 232 238 250
277 313 3.221 188 191 198
278 313 3.221 124 122 123
279 313 3.221 137 132 126
280 313 3.221 144 136 123
281 313 3.221 149 138 120
444 313 1.496 7 8 12
445 313 1.480 7 8 12
446 313 1.467 5 6 10
447 313 1.467 5 6 10
448 313 1.467 9 8 13
465 313 2.957 43 51 53
466 313 2.928 46 51 54
467 313 2.888 43 48 51
468 313 2.849 42 46 47
469 313 2.811 44 48 49
470 313 2.769 44 48 49
497 313 1.650 48 52 61
564 313 1.467 30 34 45
612 313 2.296 8 9 13
613 313 2.261 8 9 13
614 313 2.220 7 6 11
615 313 2.203 4 3 8
616 313 2.177 4 3 8
617 313 2.158 4 3 8
630 313 4.062 3 3 1
631 313 4.062 10 11 6
632 313 4.107 37 39 34
91 314 3.891 216 231 254
168 314 1.764 54 62 81
171 314 1.717 54 65 85
172 314 1.713 57 68 88
173 314 1.713 62 73 93
174 314 1.713 61 74 91
175 314 1.715 81 94 111
176 314 1.715 158 171 190
177 314 1.715 218 230 252
178 314 1.713 211 226 249
179 314 1.713 208 222 248
180 314 1.709 210 224 251
181 314 1.711 211 225 252
182 314 1.707 209 224 253
183 314 1.703 209 224 253
184 314 1.703 209 224 253
185 314 1.717 209 224 253
190 314 2.082 209 224 253
191 314 2.100 208 223 252
192 314 2.100 208 223 252
193 314 2.097 208 223 252
194 314 2.088 207 223 249
195 314 2.091 206 222 247
196 314 2.094 204 220 245
197 314 2.094 200 217 237
198 314 2.094 212 227 248
199 314 2.094 174 190 206
200 314 2.094 82 95 112
201 314 2.094 40 54 67
202 314 2.094 52 64 78
203 314 2.094 49 61 73
204 314 2.100 50 60 70
205 314 2.106 51 61 71
206 314 2.091 52 61 70
208 314 4.693 49 57 68
218 314 2.112 48 61 77
219 314 2.115 49 62 79
220 314 2.115 52 67 88
221 314 2.118 63 78 99
222 314 2.118 137 152 175
223 314 2.115 210 225 248
224 314 2.118 217 231 255
225 314 2.118 207 221 247
226 314 2.118 205 221 247
227 314 2.118 206 222 248
228 314 2.118 206 221 250
229 314 2.118 208 223 252
230 314 2.118 207 222 251
231 314 2.118 207 222 251
232 314 2.115 208 224 250
233 314 2.165 207 223 249
234 314 2.106 206 222 248
251 314 6.212 212 226 253
254 314 4.961 212 228 254
255 314 4.847 213 229 255
256 314 4.723 214 230 255
258 314 4.153 215 231 255
259 314 4.028 215 231 255
260 314 3.870 215 231 255
261 314 3.696 215 231 255
262 314 3.588 215 231 255
264 314 3.300 215 231 255
265 314 3.214 215 231 255
269 314 3.186 216 232 255
270 314 3.186 217 233 255
271 314 3.186 218 234 255
272 314 3.221 217 233 255
273 314 3.214 218 233 255
274 314 3.214 219 231 253
275 314 3.214 222 231 248
276 314 3.214 233 239 251
277 314 3.214 188 191 196
278 314 3.221 124 123 121
279 314 3.221 137 133 124
280 314 3.221 145 138 122
281 314 3.221 149 138 118
419 314 1.467 33 37 36
444 314 1.495 7 8 13
445 314 1.480 6 7 12
446 314 1.467 6 5 11
447 314 1.467 6 5 11
448 314 1.467 7 8 12
465 314 2.939 41 49 51
466 314 2.922 44 49 52
467 314 2.888 43 48 51
468 314 2.849 42 46 47
469 314 2.816 42 46 47
497 314 1.654 46 51 57
563 314 1.467 22 25 34
564 314 1.467 19 22 31
565 314 1.467 16 19 26
566 314 1.467 15 18 25
570 314 3.048 21 26 32
612 314 2.303 9 10 14
613 314 2.267 8 9 13
615 314 2.203 2 3 7
616 314 2.177 3 2 7
617 314 2.158 3 2 7
625 314 3.985 0 0 0
631 314 4.095 9 10 5
632 314 4.118 40 42 37
91 315 3.891 215 230 253
171 315 1.715 54 65 83
172 315 1.711 57 68 88
173 315 1.713 63 74 92
174 315 1.713 55 68 85
175 315 1.713 81 94 111
176 315 1.715 163 176 195
177 315 1.713 221 234 253
178 315 1.713 212 227 248
179 315 1.711 210 225 248
180 315 1.709 210 224 251
181 315 1.709 211 225 252
182 315 1.707 210 225 254
183 315 1.703 209 224 253
184 315 1.703 209 224 253
185 315 1.717 208 223 252
191 315 2.100 207 222 251
192 315 2.100 207 222 251
193 315 2.097 206 221 250
194 315 2.088 207 223 249
195 315 2.091 206 222 247
196 315 2.091 205 221 246
197 315 2.094 202 219 239
198 315 2.091 214 229 250
199 315 2.094 175 191 207
200 315 2.094 81 94 111
201 315 2.094 38 52 65
202 315 2.094 51 63 77
203 315 2.094 48 60 72
204 315 2.100 49 59 69
205 315 2.106 50 60 70
206 315 2.088 51 60 69
208 315 4.693 51 59 70
218 315 2.112 47 60 76
219 315 2.112 47 60 77
220 315 2.112 52 67 86
221 315 2.115 65 80 101
222 315 2.115 145 160 183
223 315 2.115 214 229 252
224 315 2.118 218 232 255
225 315 2.118 208 222 248
226 315 2.118 206 222 248
227 315 2.121 207 223 249
228 315 2.118 207 222 251
229 315 2.118 208 223 252
230 315 2.118 207 222 251
232 315 2.115 208 224 250
233 315 2.161 206 222 248
234 315 2.121 205 221 247
251 315 6.212 213 227 254
254 315 4.961 214 230 255
255 315 4.863 214 230 255
256 315 4.738 214 230 255
258 315 4.130 215 231 255
259 315 4.007 215 231 255
260 315 3.891 215 231 255
264 315 3.278 214 230 255
265 315 3.207 216 232 255
268 315 3.152 218 234 255
269 315 3.186 217 233 255
270 315 3.186 216 232 255
271 315 3.186 216 232 255
272 315 3.221 217 233 255
273 315 3.214 218 233 255
274 315 3.214 218 230 252
275 315 3.214 222 231 248
276 315 3.214 233 239 251
277 315 3.214 187 190 195
278 315 3.221 123 122 120
279 315 3.221 136 132 123
280 315 3.221 146 139 123
418 315 1.480 30 34 35
419 315 1.467 33 37 38
420 315 1.467 35 39 38
421 315 1.467 35 39 38
422 315 1.467 35 39 38
423 315 1.467 36 40 39
444 315 1.495 6 7 12
445 315 1.480 6 7 12
446 315 1.467 7 6 12
447 315 1.467 8 7 13
466 315 2.910 42 47 50
467 315 2.860 42 47 50
468 315 2.849 42 46 47
469 315 2.811 40 44 45
497 315 1.657 44 49 53
498 315 1.637 44 49 53
499 315 1.619 40 45 51
508 315 1.900 4 5 9
509 315 1.874 4 5 9
563 315 1.467 12 15 22
564 315 1.467 9 12 19
565 315 1.467 8 11 18
566 315 1.467 9 12 19
570 315 3.074 11 14 21
571 315 3.030 17 22 28
611 315 2.343 12 16 19
612 315 2.314 11 12 16
615 315 2.203 4 5 9
616 315 2.174 5 4 9
617 315 2.149 6 5 10
624 315 4.073 0 0 0
625 315 4.039 0 0 0
626 315 3.996 1 0 0
627 315 3.985 2 0 1
629 315 4.050 1 0 0
630 315 4.118 3 3 3
631 315 4.107 10 10 8
632 315 4.130 39 41 38
91 316 3.891 214 230 253
169 316 1.737 55 64 81
171 316 1.713 55 67 83
172 316 1.711 57 68 86
173 316 1.711 62 73 91
174 316 1.711 52 65 82
175 316 1.713 81 94 111
176 316 1.713 169 182 199
177 316 1.713 225 238 255
178 316 1.713 217 229 251
179 316 1.711 215 227 251
180 316 1.709 211 225 252
181 316 1.709 210 224 251
182 316 1.705 210 225 254
183 316 1.703 209 224 253
184 316 1.703 210 225 254
185 316 1.717 209 224 253
191 316 2.100 207 222 251
192 316 2.100 207 222 251
193 316 2.097 206 221 250
194 316 2.088 207 223 249
195 316 2.088 207 223 248
196 316 2.091 205 221 246
197 316 2.094 203 220 240
198 316 2.091 215 232 252
199 316 2.091 173 190 206
200 316 2.094 79 95 111
201 316 2.094 36 50 63
202 316 2.094 48 60 74
203 316 2.094 48 60 72
204 316 2.100 50 60 70
205 316 2.106 49 59 69
206 316 2.088 49 57 68
208 316 4.693 53 59 73
218 316 2.112 46 59 75
219 316 2.115 46 59 76
220 316 2.112 52 65 84
221 316 2.115 67 79 101
222 316 2.115 150 162 186
223 316 2.115 218 230 254
224 316 2.118 217 231 255
225 316 2.118 209 223 249
226 316 2.118 208 224 250
227 316 2.121 208 224 250
228 316 2.118 207 222 251
229 316 2.115 208 223 252
230 316 2.115 208 223 252
232 316 2.115 207 223 249
233 316 2.149 206 222 248
234 316 2.121 206 222 247
251 316 6.186 213 227 253
254 316 4.961 215 231 255
255 316 4.863 215 231 255
256 316 4.738 214 230 255
258 316 4.130 215 231 255
259 316 4.007 215 231 255
260 316 3.891 215 231 255
264 316 3.278 215 231 254
265 316 3.214 217 233 255
266 316 3.159 219 235 255
268 316 3.152 218 234 255
269 316 3.186 216 232 255
270 316 3.186 215 231 254
271 316 3.186 215 231 254
272 316 3.221 217 233 255
273 316 3.214 217 232 255
274 316 3.214 218 230 252
275 316 3.214 222 231 248
276 316 3.214 233 239 251
277 316 3.214 186 189 194
278 316 3.221 122 121 119
279 316 3.221 135 131 122
280 316 3.221 144 138 122
419 316 1.467 30 34 35
420 316 1.467 33 37 38
421 316 1.467 34 38 39
422 316 1.467 35 39 40
423 316 1.467 37 41 42
444 316 1.496 8 7 13
445 316 1.480 8 7 13
446 316 1.467 9 8 16
447 316 1.467 11 10 16
466 316 2.899 42 46 49
469 316 2.789 40 41 45
497 316 1.659 39 44 47
498 316 1.641 40 45 48
506 316 1.913 9 10 15
507 316 1.900 7 8 13
508 316 1.898 6 7 11
509 316 1.874 4 5 9
563 316 1.467 8 8 16
564 316 1.467 6 6 14
565 316 1.467 6 7 12
566 316 1.467 8 9 14
570 316 3.086 5 6 11
571 316 3.042 8 11 16
611 316 2.347 12 16 19
612 316 2.325 10 11 15
613 316 2.285 7 8 12
615 316 2.200 6 7 11
625 316 4.073 0 0 0
626 316 4.062 1 1 1
627 316 4.039 1 1 1
628 316 3.985 1 1 3
629 316 4.095 0 0 0
630 316 4.141 4 4 4
631 316 4.130 12 12 12
632 316 4.141 36 36 36
171 317 1.713 55 67 83
172 317 1.711 56 68 84
173 317 1.711 62 74 90
174 317 1.711 53 66 83
175 317 1.713 83 96 113
176 317 1.713 169 182 199
177 317 1.713 222 235 254
178 317 1.713 215 227 249
179 317 1.711 214 226 250
180 317 1.709 210 224 250
181 317 1.709 210 224 251
182 317 1.707 210 225 254
183 317 1.703 210 225 254
184 317 1.705 210 225 254
185 317 1.719 209 224 253
191 317 2.100 208 223 252
192 317 2.100 208 223 252
193 317 2.094 207 222 251
194 317 2.088 209 225 251
195 317 2.088 207 223 248
196 317 2.091 205 221 246
197 317 2.091 204 221 241
198 317 2.091 215 232 252
199 317 2.091 170 187 203
200 317 2.091 79 95 111
201 317 2.094 33 49 64
202 317 2.094 47 61 74
203 317 2.094 49 61 73
204 317 2.097 51 61 73
205 317 2.103 49 59 69
206 317 2.088 49 57 68
217 317 2.127 45 57 69
218 317 2.115 46 59 75
219 317 2.115 47 60 77
220 317 2.115 49 62 81
221 317 2.118 65 77 99
222 317 2.118 151 163 187
223 317 2.118 217 229 253
224 317 2.118 215 229 255
225 317 2.121 208 222 248
226 317 2.121 208 224 250
227 317 2.121 208 224 250
228 317 2.118 206 221 250
229 317 2.118 207 222 251
230 317 2.118 208 223 252
232 317 2.115 207 223 249
233 317 2.146 207 223 249
254 317 4.961 215 231 255
255 317 4.879 216 232 255
256 317 4.723 215 231 255
258 317 4.141 216 232 255
259 317 4.017 216 232 255
260 317 3.891 215 231 255
263 317 3.399 217 233 255
264 317 3.307 217 233 255
265 317 3.228 218 234 255
266 317 3.179 218 234 255
269 317 3.186 215 231 254
270 317 3.186 215 231 254
271 317 3.186 216 232 255
272 317 3.221 217 233 255
273 317 3.214 218 233 255
274 317 3.214 219 231 253
275 317 3.214 223 232 249
276 317 3.214 232 238 250
277 317 3.221 185 188 193
278 317 3.221 121 120 118
279 317 3.221 134 130 121
280 317 3.221 143 137 121
419 317 1.467 28 32 33
444 317 1.495 9 8 14
445 317 1.480 9 8 14
446 317 1.467 10 9 17
447 317 1.467 12 11 17
466 317 2.899 40 43 48
495 317 1.684 38 39 41
497 317 1.663 35 41 41
498 317 1.644 38 43 46
506 317 1.918 9 10 15
508 317 1.903 7 8 12
509 317 1.879 5 6 10
563 317 1.467 5 6 11
564 317 1.467 2 3 8
565 317 1.467 2 3 7
570 317 3.099 4 3 8
571 317 3.048 5 6 10
572 317 3.030 8 9 14
576 317 3.023 25 28 35
611 317 2.358 10 14 17
612 317 2.328 8 9 13
613 317 2.289 6 7 11
624 317 4.130 0 0 0
625 317 4.107 1 1 0
626 317 4.084 1 1 1
627 317 4.073 1 1 1
628 317 4.039 0 0 2
629 317 4.107 0 0 2
630 317 4.165 4 4 4
631 317 4.153 13 13 13
632 317 4.165 36 36 36
171 318 1.713 57 66 81
172 318 1.711 55 67 81
173 318 1.711 62 74 88
174 318 1.711 58 70 86
175 318 1.711 86 98 114
176 318 1.713 169 180 198
177 318 1.713 221 232 252
178 318 1.711 213 225 247
179 318 1.711 213 225 249
180 318 1.709 210 224 250
181 318 1.709 210 224 251
182 318 1.707 211 226 255
183 318 1.705 210 225 254
184 318 1.705 209 224 253
191 318 2.097 209 224 253
192 318 2.100 209 224 253
193 318 2.094 209 223 252
194 318 2.088 211 225 252
195 318 2.088 208 222 248
196 318 2.091 205 221 246
197 318 2.091 206 223 243
198 318 2.091 216 233 253
199 318 2.091 167 184 200
200 318 2.091 76 92 108
201 318 2.094 32 48 63
202 318 2.094 47 61 74
203 318 2.094 48 60 72
204 318 2.097 49 59 71
205 318 2.106 47 57 69
206 318 2.088 46 54 65
217 318 2.127 45 57 69
218 318 2.118 46 58 74
219 318 2.115 51 62 80
220 318 2.115 48 59 79
221 318 2.118 67 78 100
222 318 2.121 152 164 188
223 318 2.118 218 230 254
224 318 2.121 215 229 255
225 318 2.121 208 222 248
226 318 2.121 208 224 250
227 318 2.121 208 224 250
228 318 2.118 206 221 250
229 318 2.118 208 223 252
230 318 2.115 209 224 253
232 318 2.115 208 224 250
233 318 2.143 208 224 250
254 318 4.961 215 231 255
255 318 4.863 215 231 255
256 318 4.693 215 231 255
257 318 4.335 216 232 255
258 318 4.153 217 233 255
259 318 4.007 217 233 255
260 318 3.880 216 232 255
263 318 3.383 217 233 255
264 318 3.322 217 233 255
265 318 3.242 217 233 255
269 318 3.193 216 233 253
270 318 3.193 216 233 253
271 318 3.193 217 233 255
272 318 3.221 218 232 255
273 318 3.214 218 233 255
274 318 3.214 219 231 253
275 318 3.214 223 232 249
276 318 3.221 231 237 249
277 318 3.221 183 186 191
278 318 3.221 118 118 116
279 318 3.221 133 130 121
280 318 3.221 143 137 121
419 318 1.467 28 32 33
445 318 1.480 10 9 15
446 318 1.467 11 8 17
447 318 1.467 11 10 16
495 318 1.671 36 37 39
497 318 1.663 32 41 38
498 318 1.648 37 43 43
499 318 1.643 33 39 39
505 318 1.938 9 10 15
506 318 1.920 9 10 15
507 318 1.908 7 8 13
508 318 1.905 6 7 11
509 318 1.883 5 6 10
563 318 1.467 2 3 8
564 318 1.467 1 0 6
565 318 1.467 2 1 6
568 318 3.159 3 1 4
570 318 3.126 2 2 4
571 318 3.106 1 1 3
572 318 3.055 3 2 7
577 318 3.011 24 27 32
611 318 2.365 6 10 11
612 318 2.332 5 9 12
613 318 2.292 5 9 12
624 318 4.188 0 0 0
625 318 4.141 1 1 0
626 318 4.107 0 0 0
627 318 4.095 1 1 1
628 318 4.073 1 1 3
629 318 4.130 0 0 2
630 318 4.212 4 4 6
631 318 4.176 11 11 13
632 318 4.200 36 36 38
171 319 1.713 56 65 80
172 319 1.711 54 66 80
173 319 1.713 61 73 89
174 319 1.711 59 71 87
175 319 1.711 87 98 116
176 319 1.711 173 184 202
177 319 1.713 222 235 254
178 319 1.711 214 226 248
179 319 1.709 212 227 250
180 319 1.709 210 224 250
181 319 1.711 210 224 251
182 319 1.709 210 226 252
183 319 1.707 208 223 252
184 319 1.707 209 224 253
191 319 2.097 210 225 254
192 319 2.097 209 224 253
193 319 2.094 210 224 251
194 319 2.088 211 225 252
195 319 2.088 209 223 249
196 319 2.091 206 222 245
197 319 2.091 208 224 247
198 319 2.091 217 234 254
199 319 2.091 168 183 202
200 319 2.091 76 92 108
201 319 2.094 38 51 67
202 319 2.094 51 64 80
203 319 2.094 50 62 76
204 319 2.100 50 59 74
205 319 2.109 49 59 71
206 319 2.094 48 56 69
217 319 2.124 43 55 69
218 319 2.115 43 55 71
219 319 2.115 51 62 80
220 319 2.115 48 59 79
221 319 2.115 68 79 101
222 319 2.118 155 165 190
223 319 2.118 220 232 255
224 319 2.118 217 231 255
225 319 2.121 210 224 250
226 319 2.121 210 226 252
227 319 2.121 209 225 251
228 319 2.118 208 223 252
229 319 2.115 210 225 254
230 319 2.115 210 225 254
232 319 2.115 209 225 251
233 319 2.140 208 224 250
255 319 4.831 215 231 255
256 319 4.620 214 230 255
257 319 4.335 215 231 255
258 319 4.141 217 233 255
259 319 3.974 217 233 255
260 319 3.860 216 232 255
263 319 3.375 216 232 255
264 319 3.322 216 232 255
265 319 3.249 216 232 255
267 319 2.910 217 233 255
269 319 3.193 217 234 254
270 319 3.193 217 234 254
271 319 3.193 218 234 255
273 319 3.214 219 231 255
274 319 3.214 220 231 253
275 319 3.214 222 231 248
276 319 3.221 230 236 248
277 319 3.221 182 185 190
278 319 3.221 117 117 115
279 319 3.221 133 130 121
280 319 3.221 143 137 121
376 319 2.200 152 157 160
446 319 1.467 11 10 18
495 319 1.676 36 37 39
498 319 1.652 37 41 42
505 319 1.938 7 8 12
506 319 1.922 8 9 13
507 319 1.910 5 6 10
508 319 1.908 4 5 9
509 319 1.888 3 4 8
563 319 1.467 1 2 6
564 319 1.467 2 1 6
567 319 3.221 2 0 3
568 319 3.186 2 0 3
569 319 3.146 5 3 6
570 319 3.132 3 2 7
571 319 3.126 1 0 5
572 319 3.080 2 1 6
573 319 3.042 2 1 6
575 319 3.048 7 6 11
577 319 3.011 15 19 22
578 319 2.999 23 26 31
611 319 2.369 3 7 8
613 319 2.299 5 9 12
625 319 4.212 1 1 0
626 319 4.141 0 0 0
627 319 4.130 1 1 1
628 319 4.107 1 1 1
629 319 4.165 0 0 2
630 319 4.248 3 3 5
631 319 4.224 9 9 11
632 319 4.224 33 33 35
172 320 1.713 57 69 85
173 320 1.713 59 70 88
174 320 1.711 56 67 85
175 320 1.711 85 96 116
176 320 1.711 176 189 208
177 320 1.713 218 231 250
178 320 1.711 214 226 248
179 320 1.711 209 224 245
180 320 1.711 209 224 247
181 320 1.711 212 228 253
182 320 1.711 207 223 248
183 320 1.709 206 222 248
184 320 1.707 208 225 251
192 320 2.097 210 226 252
193 320 2.094 209 225 251
194 320 2.088 205 221 247
195 320 2.088 209 225 250
196 320 2.091 207 222 245
197 320 2.091 210 225 248
198 320 2.091 225 240 255
199 320 2.091 166 179 198
200 320 2.091 70 83 100
201 320 2.094 40 51 69
202 320 2.094 50 61 79
203 320 2.094 49 58 75
204 320 2.100 50 59 76
205 320 2.109 48 55 71
206 320 2.097 49 56 72
215 320 2.127 44 52 65
216 320 2.097 50 57 73
217 320 2.118 48 57 72
218 320 2.112 48 57 74
219 320 2.112 52 60 79
220 320 2.112 51 59 80
221 320 2.112 68 76 97
222 320 2.115 159 167 190
223 320 2.115 220 230 255
224 320 2.118 219 233 255
225 320 2.118 207 223 249
226 320 2.118 209 223 250
227 320 2.118 209 223 250
228 320 2.115 206 222 248
229 320 2.115 208 224 250
230 320 2.115 208 224 250
231 320 2.118 208 224 250
232 320 2.115 209 226 252
233 320 2.152 206 223 249
234 320 2.136 207 224 250
256 320 4.521 214 232 254
257 320 4.348 215 233 255
258 320 4.188 217 233 255
259 320 3.942 217 233 255
260 320 3.810 216 232 255
261 320 3.715 215 231 254
263 320 3.368 215 231 254
264 320 3.307 215 231 254
265 320 3.249 216 232 255
270 320 3.193 217 232 255
271 320 3.200 218 233 255
273 320 3.214 218 230 255
274 320 3.214 219 230 252
275 320 3.221 221 228 246
276 320 3.221 232 236 248
277 320 3.221 182 182 190
375 320 2.237 151 159 162
446 320 1.467 14 15 20
467 320 2.849 34 37 42
495 320 1.684 35 36 38
498 320 1.654 39 40 42
505 320 1.940 8 8 10
506 320 1.925 6 6 8
507 320 1.913 6 5 10
508 320 1.910 6 5 10
509 320 1.888 5 4 9
530 320 1.786 0 0 2
531 320 1.773 1 1 3
548 320 3.479 21 25 26
549 320 3.454 12 16 17
550 320 3.430 10 11 15
561 320 1.467 3 2 8
562 320 1.467 3 2 7
563 320 1.467 1 0 5
564 320 1.467 2 1 6
568 320 3.221 1 0 4
569 320 3.179 3 1 6
570 320 3.152 3 2 8
571 320 3.139 3 2 8
572 320 3.106 1 0 6
573 320 3.067 1 0 6
574 320 3.080 3 2 8
575 320 3.055 4 3 9
577 320 3.017 8 12 15
578 320 2.999 15 18 23
579 320 2.981 27 30 35
610 320 2.388 8 13 16
611 320 2.365 8 13 16
613 320 2.317 7 12 15
626 320 4.212 0 0 0
627 320 4.165 1 1 0
628 320 4.118 1 1 0
629 320 4.212 0 0 0
630 320 4.273 0 2 1
631 320 4.248 4 6 5
632 320 4.236 30 32 31
173 321 1.715 60 71 89
174 321 1.713 57 68 88
175 321 1.711 93 104 124
177 321 1.713 222 234 255
178 321 1.711 212 227 248
179 321 1.713 209 224 245
180 321 1.711 206 222 245
181 321 1.713 207 223 246
182 321 1.711 208 224 249
183 321 1.709 212 228 253
184 321 1.709 207 224 250
193 321 2.094 208 224 250
194 321 2.088 211 227 252
195 321 2.088 209 225 250
196 321 2.091 210 225 248
197 321 2.091 211 226 249
198 321 2.091 222 234 255
199 321 2.091 168 180 202
200 321 2.091 71 82 102
201 321 2.094 36 47 65
202 321 2.094 54 62 81
203 321 2.094 51 59 78
204 321 2.100 52 60 79
205 321 2.109 53 60 78
206 321 2.094 52 59 77
216 321 2.094 43 50 66
217 321 2.109 46 55 72
218 321 2.106 50 58 77
219 321 2.109 54 62 81
220 321 2.109 53 61 82
221 321 2.109 71 79 100
222 321 2.112 161 169 192
223 321 2.112 222 233 255
224 321 2.115 217 231 255
225 321 2.115 207 223 248
226 321 2.115 208 222 248
227 321 2.115 208 222 248
228 321 2.115 205 219 245
229 321 2.112 207 223 248
230 321 2.112 206 222 247
231 321 2.118 206 222 247
232 321 2.115 207 223 248
234 321 2.133 205 222 248
235 321 2.118 208 224 250
257 321 4.348 215 233 255
258 321 4.248 216 232 255
260 321 3.771 215 231 254
261 321 3.659 215 231 254
264 321 3.293 215 231 254
265 321 3.235 215 231 254
271 321 3.200 215 229 255
498 321 1.657 34 34 36
500 321 1.674 31 29 32
506 321 1.925 8 8 10
507 321 1.910 7 7 9
508 321 1.908 7 6 11
509 321 1.883 7 6 11
515 321 2.468 3 3 5
548 321 3.470 14 18 19
549 321 3.446 7 11 12
550 321 3.414 6 7 11
551 321 3.391 4 5 9
561 321 1.467 5 4 10
562 321 1.467 4 3 8
563 321 1.467 3 2 7
564 321 1.467 3 3 5
569 321 3.214 4 1 8
570 321 3.173 4 3 9
571 321 3.139 3 2 8
572 321 3.112 1 0 6
573 321 3.074 1 0 6
577 321 3.005 5 6 10
578 321 2.981 10 13 18
579 321 2.963 18 21 26
610 321 2.381 12 17 20
611 321 2.365 13 18 21
612 321 2.343 13 18 21
613 321 2.325 11 16 19
626 321 4.261 0 0 0
627 321 4.224 1 1 0
628 321 4.130 0 0 0
629 321 4.236 0 0 0
630 321 4.285 0 2 1
631 321 4.261 5 7 6
632 321 4.248 29 31 30
181 322 1.713 211 225 251
182 322 1.713 211 227 253
183 322 1.711 208 224 250
184 322 1.709 210 225 254
193 322 2.091 210 224 250
194 322 2.088 212 226 252
195 322 2.088 208 222 248
196 322 2.088 212 227 250
197 322 2.091 216 231 254
198 322 2.091 219 231 253
199 322 2.091 154 166 188
200 322 2.091 65 78 97
201 322 2.091 27 40 59
202 322 2.091 39 50 70
203 322 2.091 34 45 63
204 322 2.097 36 47 65
216 322 2.091 40 49 66
217 322 2.103 37 48 66
218 322 2.103 38 49 67
219 322 2.106 45 56 76
220 322 2.106 47 58 80
221 322 2.106 69 80 102
222 322 2.109 159 170 192
223 322 2.109 223 234 255
224 322 2.112 219 234 255
225 322 2.112 212 227 248
226 322 2.112 213 225 247
227 322 2.112 212 224 246
228 322 2.112 210 222 244
229 322 2.109 210 225 246
230 322 2.109 211 226 249
231 322 2.115 211 227 250
232 322 2.112 211 227 250
234 322 2.130 209 225 248
235 322 2.115 210 225 248
256 322 4.466 215 233 255
257 322 4.348 215 233 255
258 322 4.273 215 233 255
260 322 3.752 215 231 254
261 322 3.650 215 231 254
264 322 3.264 215 231 255
265 322 3.228 215 231 255
271 322 3.207 213 227 253
329 322 3.840 36 39 44
496 322 1.684 33 34 38
500 322 1.676 28 27 32
507 322 1.913 8 7 12
508 322 1.908 8 7 12
509 322 1.883 6 5 10
515 322 2.464 3 3 5
516 322 2.448 4 4 6
548 322 3.462 9 10 14
549 322 3.438 5 6 10
550 322 3.406 4 3 8
560 322 1.467 3 2 8
561 322 1.467 2 1 7
562 322 1.467 2 1 6
563 322 1.467 2 1 6
564 322 1.467 3 3 5
565 322 1.467 3 3 5
569 322 3.228 5 2 9
570 322 3.200 3 2 10
571 322 3.146 2 1 9
572 322 3.112 1 0 6
573 322 3.055 0 0 5
576 322 3.023 3 4 8
577 322 2.981 6 7 11
578 322 2.957 7 10 15
611 322 2.369 18 23 27
612 322 2.347 19 23 26
626 322 4.273 0 0 0
627 322 4.248 1 1 1
628 322 4.153 0 0 0
629 322 4.248 0 0 0
630 322 4.285 2 4 3
631 322 4.261 8 10 9
632 322 4.248 29 31 30
182 323 1.715 217 233 255
183 323 1.713 215 231 255
184 323 1.709 217 232 255
196 323 2.088 220 235 255
197 323 2.088 222 237 255
198 323 2.088 217 229 251
199 323 2.088 149 161 183
200 323 2.088 71 84 103
201 323 2.088 46 59 78
202 323 2.091 53 64 84
203 323 2.091 47 58 78
204 323 2.094 50 61 81
216 323 2.091 37 48 68
217 323 2.100 35 48 67
218 323 2.100 37 48 68
219 323 2.103 42 53 75
220 323 2.103 42 53 75
221 323 2.103 67 78 100
222 323 2.109 156 167 189
223 323 2.109 219 232 251
224 323 2.109 225 238 255
225 323 2.112 221 236 255
226 323 2.112 227 240 255
227 323 2.112 229 242 255
228 323 2.112 228 241 255
229 323 2.106 227 240 255
230 323 2.106 226 239 255
231 323 2.115 222 237 255
232 323 2.112 223 238 255
234 323 2.133 221 236 255
235 323 2.118 223 236 255
256 323 4.466 214 232 255
257 323 4.348 214 232 254
258 323 4.273 214 232 254
260 323 3.752 215 231 254
261 323 3.650 214 230 253
264 323 3.249 215 231 255
265 323 3.221 215 231 255
329 323 3.840 35 39 42
495 323 1.688 21 22 24
507 323 1.915 8 7 12
508 323 1.908 7 6 11
509 323 1.886 6 5 10
515 323 2.468 3 3 5
516 323 2.448 3 3 5
548 323 3.454 4 5 9
549 323 3.422 4 5 9
560 323 1.467 3 2 8
561 323 1.467 2 1 6
562 323 1.467 1 0 5
563 323 1.467 3 3 5
564 323 1.467 4 4 6
565 323 1.467 4 4 6
570 323 3.214 2 1 9
571 323 3.159 2 1 9
573 323 3.074 2 1 7
576 323 3.023 4 5 9
577 323 2.975 4 5 7
581 323 2.951 22 25 34
611 323 2.369 23 28 32
627 323 4.248 1 1 1
628 323 4.165 0 0 0
629 323 4.261 1 1 1
630 323 4.285 6 8 7
631 323 4.273 13 15 14
632 323 4.261 32 34 33
184 324 1.711 138 152 179
202 324 2.088 154 166 188
203 324 2.088 150 162 184
204 324 2.091 153 165 187
216 324 2.094 127 139 161
217 324 2.103 122 137 158
218 324 2.100 120 132 154
219 324 2.103 122 134 156
220 324 2.103 120 132 154
221 324 2.103 132 144 166
222 324 2.109 169 182 201
223 324 2.109 181 194 213
224 324 2.109 187 200 219
225 324 2.112 188 201 218
226 324 2.112 190 201 219
227 324 2.109 191 202 220
228 324 2.112 191 202 220
229 324 2.106 193 204 222
230 324 2.103 196 207 225
231 324 2.112 194 207 224
232 324 2.112 197 210 229
234 324 2.140 197 210 229
235 324 2.121 199 210 228
329 324 3.850 32 36 37
509 324 1.883 7 6 11
515 324 2.476 2 2 4
560 324 1.467 3 2 7
561 324 1.467 1 0 5
562 324 1.467 0 0 4
563 324 1.467 2 2 4
564 324 1.467 3 3 5
565 324 1.467 3 3 3
577 324 2.963 1 2 4
622 324 1.922 3 1 4
627 324 4.261 0 0 0
628 324 4.165 0 0 0
629 324 4.261 2 2 2
630 324 4.285 9 9 9
631 324 4.273 17 17 17
632 324 4.261 27 28 30
87 325 2.155 58 67 84
184 325 1.715 49 63 89
216 325 2.103 218 232 255
217 325 2.106 217 232 255
218 325 2.103 215 230 253
219 325 2.106 218 233 255
220 325 2.106 218 230 252
221 325 2.106 206 219 238
222 325 2.109 160 173 192
223 325 2.109 85 98 117
224 325 2.109 72 85 104
225 325 2.112 74 87 104
226 325 2.112 73 84 102
227 325 2.109 73 84 102
228 325 2.112 76 84 103
229 325 2.103 79 87 106
230 325 2.103 83 94 112
231 325 2.112 84 95 113
234 325 2.149 88 99 117
236 325 2.133 92 100 119
329 325 3.860 31 35 36
560 325 1.467 2 1 6
561 325 1.467 2 1 6
562 325 1.467 1 1 3
563 325 1.467 0 0 2
564 325 1.467 0 0 0
577 325 2.951 1 2 4
621 325 1.910 7 7 9
622 325 1.913 2 0 3
627 325 4.248 0 0 0
628 325 4.165 0 0 0
629 325 4.261 2 2 2
630 325 4.285 8 8 8
631 325 4.273 15 15 15
632 325 4.261 19 20 22
87 326 2.152 64 76 90
184 326 1.717 52 64 86
215 326 2.124 209 225 251
216 326 2.109 207 223 249
217 326 2.109 207 223 248
218 326 2.103 205 220 243
219 326 2.106 206 221 244
220 326 2.106 209 224 245
221 326 2.106 209 224 243
222 326 2.109 155 168 187
223 326 2.109 55 68 87
224 326 2.109 35 46 66
225 326 2.109 43 54 74
226 326 2.109 46 57 77
227 326 2.109 48 59 79
228 326 2.109 51 59 80
229 326 2.100 49 57 78
230 326 2.100 50 58 77
231 326 2.112 48 56 75
234 326 2.149 50 58 79
235 326 2.127 51 59 80
236 326 2.140 51 57 79
237 326 2.124 53 59 81
243 326 2.143 64 75 95
244 326 2.143 89 100 122
245 326 2.140 175 186 208
329 326 3.860 29 33 34
395 326 3.293 164 168 177
412 326 7.007 61 65 68
454 326 4.039 37 42 46
559 326 1.467 0 2 1
560 326 1.467 6 6 8
561 326 1.467 6 6 8
562 326 1.467 5 5 7
563 326 1.467 2 2 4
564 326 1.467 1 1 1
577 326 2.945 1 2 4
628 326 4.141 0 0 0
629 326 4.261 2 2 2
630 326 4.285 6 6 8
631 326 4.273 10 10 12
632 326 4.261 15 16 18
87 327 2.152 65 79 92
88 327 2.152 63 75 89
120 327 1.777 210 224 250
213 327 1.933 203 219 245
215 327 2.127 204 219 248
216 327 2.109 205 221 247
217 327 2.109 202 218 243
218 327 2.103 201 215 241
219 327 2.106 203 218 239
220 327 2.106 206 221 242
221 327 2.106 210 225 244
222 327 2.109 155 168 185
223 327 2.109 49 62 79
224 327 2.109 41 52 72
225 327 2.109 49 60 80
226 327 2.109 49 60 80
227 327 2.106 49 60 80
228 327 2.109 52 60 81
229 327 2.097 50 58 77
230 327 2.097 53 61 80
231 327 2.109 52 60 79
233 327 2.161 53 61 80
234 327 2.149 54 62 81
235 327 2.130 54 62 81
236 327 2.149 54 60 82
237 327 2.133 56 62 84
238 327 2.140 59 64 86
240 327 2.136 60 67 86
242 327 2.146 68 76 97
243 327 2.143 62 73 93
244 327 2.143 84 95 117
245 327 2.140 178 190 212
246 327 2.136 227 239 255
247 327 2.133 215 230 253
248 327 2.133 214 228 254
249 327 2.133 214 228 254
329 327 3.860 26 30 31
392 327 3.179 155 163 176
396 327 3.221 170 174 185
397 327 3.139 169 173 184
403 327 7.040 160 170 179
412 327 6.974 58 62 65
454 327 4.028 34 39 43
479 327 2.103 22 23 27
559 327 1.467 0 1 0
560 327 1.467 5 5 7
561 327 1.467 7 7 9
562 327 1.467 5 5 7
563 327 1.467 2 2 4
629 327 4.261 2 2 2
630 327 4.285 5 5 7
631 327 4.273 7 7 9
632 327 4.261 8 9 11
87 328 2.155 63 76 92
88 328 2.158 65 77 91
89 328 2.168 65 77 91
120 328 1.781 212 226 253
121 328 1.777 213 227 254
147 328 3.011 53 66 82
148 328 3.005 49 62 79
149 328 3.005 56 69 86
150 328 3.005 60 73 90
151 328 3.005 63 76 95
152 328 3.005 139 150 172
153 328 3.011 222 233 255
158 328 2.999 205 219 245
159 328 2.969 205 219 245
209 328 2.184 203 219 244
215 328 2.127 201 216 245
216 328 2.112 203 219 245
217 328 2.109 202 218 243
218 328 2.106 205 219 245
219 328 2.106 204 219 240
220 328 2.106 210 222 244
221 328 2.106 211 224 243
222 328 2.109 151 162 180
223 328 2.109 51 62 80
224 328 2.109 37 50 69
225 328 2.109 47 60 79
226 328 2.109 47 58 78
227 328 2.106 43 54 72
228 328 2.109 47 55 74
229 328 2.097 49 58 75
230 328 2.097 50 59 76
231 328 2.109 47 56 73
233 328 2.158 50 59 76
234 328 2.149 48 57 74
236 328 2.152 47 54 73
237 328 2.143 48 55 74
238 328 2.143 50 55 75
239 328 2.127 53 58 78
240 328 2.136 53 60 79
241 328 2.140 52 61 78
242 328 2.143 61 72 90
243 328 2.143 57 68 86
244 328 2.143 94 105 125
245 328 2.140 189 201 223
246 328 2.136 228 240 255
247 328 2.133 216 231 254
248 328 2.133 213 227 253
249 328 2.133 213 229 254
250 328 2.140 212 228 254
256 328 2.158 208 225 251
325 328 3.446 33 37 40
329 328 3.850 28 29 31
355 328 1.650 167 174 180
390 328 3.186 140 153 170
391 328 3.173 148 160 176
392 328 3.166 159 168 183
393 328 3.159 165 173 184
396 328 3.221 169 173 184
397 328 3.132 169 173 184
412 328 6.941 56 60 63
445 328 1.478 36 40 43
446 328 1.467 35 38 43
454 328 4.007 31 36 39
479 328 2.106 17 16 21
559 328 1.467 0 0 2
560 328 1.467 1 1 3
561 328 1.467 2 2 4
562 328 1.467 2 2 4
563 328 1.467 0 0 2
631 328 4.285 3 3 5
632 328 4.273 4 4 6
86 329 2.152 64 76 92
87 329 2.158 64 76 92
88 329 2.161 66 78 92
89 329 2.168 68 77 92
120 329 1.783 213 227 254
146 329 3.017 52 64 76
147 329 3.005 54 66 80
148 329 2.999 51 65 78
149 329 2.999 57 70 86
150 329 2.999 59 72 88
151 329 2.999 66 79 96
152 329 2.999 141 152 172
153 329 2.999 222 233 255
158 329 2.993 206 220 247
159 329 2.963 206 220 247
209 329 2.184 203 219 244
210 329 2.174 203 219 245
215 329 2.127 203 218 247
216 329 2.112 203 219 245
217 329 2.109 203 219 244
218 329 2.106 205 219 245
219 329 2.106 203 218 239
220 329 2.109 209 221 243
221 329 2.106 210 223 242
222 329 2.109 148 159 177
223 329 2.109 45 57 73
224 329 2.109 32 45 62
225 329 2.109 42 55 72
226 329 2.109 44 55 73
227 329 2.106 42 54 70
228 329 2.109 45 54 71
229 329 2.094 45 54 69
230 329 2.097 44 53 68
231 329 2.109 42 51 66
232 329 2.115 44 54 66
233 329 2.158 46 56 68
234 329 2.146 44 53 68
235 329 2.130 43 52 67
236 329 2.155 45 52 68
237 329 2.152 46 53 69
238 329 2.143 48 53 72
239 329 2.127 49 56 74
240 329 2.136 49 58 75
241 329 2.140 50 59 76
242 329 2.143 58 69 87
243 329 2.140 54 65 83
244 329 2.140 92 105 124
245 329 2.140 189 202 221
246 329 2.136 227 242 255
247 329 2.133 215 230 253
248 329 2.130 212 228 253
249 329 2.130 213 229 254
250 329 2.140 212 228 254
251 329 2.130 211 227 253
256 329 2.168 208 225 251
273 329 1.771 204 220 243
324 329 3.462 38 42 45
325 329 3.454 32 36 39
326 329 3.446 29 33 36
327 329 3.446 27 31 32
355 329 1.654 166 175 182
356 329 1.646 166 175 180
390 329 3.179 142 159 177
391 329 3.166 153 169 184
392 329 3.159 159 171 185
393 329 3.152 165 175 187
396 329 3.221 171 175 186
445 329 1.478 30 34 37
446 329 1.467 30 33 38
479 329 2.109 16 16 18
559 329 1.467 1 1 3
560 329 1.467 2 2 4
561 329 1.467 3 3 5
562 329 1.467 2 2 4
86 330 2.152 67 76 93
87 330 2.158 70 79 96
88 330 2.158 66 75 90
99 330 9.856 60 72 86
120 330 1.786 212 228 253
121 330 1.781 212 228 251
145 330 3.055 50 60 70
146 330 3.011 49 62 71
147 330 3.005 50 62 74
148 330 2.993 49 63 74
149 330 2.999 52 66 79
150 330 2.993 50 63 79
151 330 2.993 62 75 92
152 330 2.993 145 158 177
153 330 2.999 221 233 255
159 330 2.963 207 222 251
160 330 2.963 207 221 250
209 330 2.184 205 219 245
210 330 2.174 205 219 246
212 330 2.140 204 220 246
215 330 2.127 204 220 246
216 330 2.115 202 218 244
217 330 2.112 203 219 244
218 330 2.106 205 219 245
219 330 2.109 202 217 238
220 330 2.109 209 221 243
221 330 2.109 210 223 242
222 330 2.112 144 155 173
223 330 2.109 39 51 67
224 330 2.109 29 42 58
225 330 2.109 39 53 66
226 330 2.109 42 54 68
227 330 2.103 42 54 66
228 330 2.106 45 55 67
229 330 2.094 43 53 65
230 330 2.094 42 52 62
231 330 2.109 41 51 61
232 330 2.115 41 51 61
233 330 2.155 43 53 63
234 330 2.143 42 52 62
236 330 2.155 45 53 64
237 330 2.155 45 53 64
238 330 2.146 47 53 67
239 330 2.127 47 55 68
240 330 2.136 48 57 74
241 330 2.140 48 60 76
242 330 2.140 57 68 86
243 330 2.140 53 64 82
244 330 2.140 93 106 125
245 330 2.140 191 204 223
246 330 2.136 228 243 255
247 330 2.133 216 231 254
248 330 2.130 211 227 252
249 330 2.127 211 227 252
250 330 2.136 211 227 253
251 330 2.127 210 226 252
271 330 1.766 205 221 247
272 330 1.773 206 223 249
297 330 4.620 161 159 173
321 330 3.438 40 43 50
323 330 3.446 42 45 50
324 330 3.454 30 34 37
325 330 3.446 23 27 30
326 330 3.438 23 24 26
327 330 3.430 23 24 26
355 330 1.657 167 176 183
356 330 1.650 166 175 182
357 330 1.646 166 177 183
364 330 1.827 163 173 183
365 330 1.827 161 171 181
366 330 1.823 150 160 172
392 330 3.152 160 173 189
393 330 3.152 165 177 189
396 330 3.214 172 179 189
446 330 1.467 30 31 35
478 330 2.133 14 12 15
558 330 1.467 2 0 5
559 330 1.467 2 0 5
560 330 1.467 2 1 6
561 330 1.467 3 2 7
562 330 1.467 2 2 4
86 331 2.149 65 72 90
87 331 2.158 66 73 89
88 331 2.158 65 72 88
99 331 9.922 59 71 85
120 331 1.788 211 227 252
121 331 1.781 210 226 251
145 331 3.055 52 62 71
146 331 3.011 49 62 71
147 331 3.005 50 63 72
148 331 2.999 50 64 75
149 331 2.999 52 66 79
150 331 2.999 45 58 74
151 331 2.993 64 77 94
152 331 2.999 151 164 183
153 331 2.999 222 234 255
156 331 1.974 206 220 247
157 331 1.974 206 222 248
159 331 2.963 208 223 252
160 331 2.963 207 221 250
209 331 2.187 206 220 246
210 331 2.174 206 220 247
212 331 2.140 204 220 246
214 331 2.130 205 221 247
215 331 2.127 205 221 247
216 331 2.115 205 221 247
217 331 2.112 205 221 247
218 331 2.106 205 219 245
219 331 2.109 205 220 243
220 331 2.109 214 226 248
221 331 2.109 213 226 245
222 331 2.109 146 157 177
223 331 2.109 42 53 71
224 331 2.109 29 42 58
225 331 2.109 40 52 66
226 331 2.106 41 53 65
227 331 2.103 43 53 65
228 331 2.106 44 54 64
229 331 2.094 42 52 61
230 331 2.094 43 53 62
231 331 2.109 43 53 62
232 331 2.112 42 52 61
233 331 2.161 44 54 63
234 331 2.143 44 54 63
236 331 2.158 46 55 64
237 331 2.158 47 56 65
238 331 2.146 47 53 65
239 331 2.127 46 54 67
240 331 2.136 50 59 74
241 331 2.136 49 61 77
242 331 2.140 58 69 87
243 331 2.136 56 67 85
244 331 2.136 97 110 129
245 331 2.136 192 204 226
246 331 2.133 228 243 255
247 331 2.130 218 233 255
248 331 2.127 212 226 252
249 331 2.124 209 225 250
250 331 2.136 209 225 251
251 331 2.124 210 226 252
258 331 2.149 207 224 250
271 331 1.766 205 221 247
272 331 1.773 205 222 248
297 331 4.620 163 160 177
321 331 3.422 33 36 41
322 331 3.414 36 39 44
323 331 3.430 34 38 41
324 331 3.438 28 32 35
325 331 3.430 27 31 32
326 331 3.422 27 28 30
327 331 3.422 24 26 25
328 331 3.406 22 24 23
342 331 1.709 28 32 35
355 331 1.657 168 177 184
356 331 1.650 166 177 183
357 331 1.644 166 177 183
364 331 1.830 164 174 184
365 331 1.830 163 173 183
366 331 1.827 155 165 177
396 331 3.214 172 179 189
400 331 7.142 167 177 187
405 331 6.428 165 174 183
444 331 1.498 31 32 36
445 331 1.467 31 32 36
446 331 1.467 32 33 37
478 331 2.140 15 13 14
558 331 1.467 1 0 4
559 331 1.467 1 0 4
560 331 1.467 1 0 5
561 331 1.467 2 1 6
86 332 2.149 64 71 87
87 332 2.155 64 71 87
88 332 2.158 64 71 87
99 332 9.922 59 71 85
120 332 1.788 210 225 254
125 332 3.067 209 225 248
144 332 3.106 47 56 65
145 332 3.055 49 59 69
146 332 3.017 47 59 71
147 332 3.005 50 62 74
148 332 2.999 52 66 79
149 332 2.999 54 68 81
150 332 2.999 47 60 76
151 332 2.999 72 85 102
152 332 2.999 158 171 190
155 332 1.974 208 220 246
156 332 1.971 205 219 246
157 332 1.971 205 221 247
159 332 2.963 207 222 251
160 332 2.963 207 221 248
209 332 2.184 207 221 248
210 332 2.174 207 221 248
212 332 2.140 204 220 246
214 332 2.130 204 221 247
215 332 2.127 204 221 247
216 332 2.112 204 221 247
217 332 2.112 202 219 245
218 332 2.103 202 218 243
219 332 2.106 205 220 243
220 332 2.109 216 228 252
221 332 2.109 212 224 246
222 332 2.109 143 155 177
223 332 2.109 42 55 74
224 332 2.106 30 42 58
225 332 2.106 39 51 65
226 332 2.106 42 52 64
227 332 2.100 43 51 64
228 332 2.106 44 52 63
229 332 2.091 41 50 59
230 332 2.091 41 50 59
234 332 2.143 44 55 61
236 332 2.158 47 56 65
237 332 2.161 47 56 65
238 332 2.146 46 53 63
239 332 2.127 45 53 64
240 332 2.133 50 59 74
241 332 2.136 49 61 77
242 332 2.136 59 70 88
